-0.102721 -0.052959 -0.207978
-0.174937 0.011501 -0.180393
-0.088066 0.057328 -0.213575
-0.025548 -0.13523 -0.237455
-0.013762 -0.059976 -0.241957
-0.010932 -0.144171 -0.243038
-0.056328 0.049825 -0.225698
-0.141068 -0.032521 -0.193331
-0.157094 0.035614 -0.187209
-0.125068 0.048075 -0.199442
-0.091311 -0.070521 -0.212336
-0.110495 -0.006767 -0.205008
-0.047238 -0.123569 -0.22917
-0.05437 0.000957 -0.226446
-0.00695 0.075214 -0.244559
-0.030724 0.100279 -0.235478
-0.074321 0.081102 -0.218825
-0.037164 0.05844 -0.233018
-0.021568 -0.100941 -0.238976
-0.194678 0.023233 -0.172853
-0.06968 -0.06582 -0.220598
-0.098595 0.090294 -0.209554
-0.040919 -0.024178 -0.231584
-0.163421 0.030432 -0.184792
-0.06322 0.004929 -0.223066
-0.117187 -0.034692 -0.202452
-4.8e-05 0.000674 -0.247195
-0.052188 -0.087268 -0.227279
-0.099344 -0.008857 -0.209268
-0.001514 -0.067718 -0.246635
-0.052277 0.058802 -0.227246
-0.039613 0.127127 -0.232083
-0.106594 -0.019908 -0.206498
-0.060565 0.066928 -0.22408
-0.114308 -0.001532 -0.203552
-0.113652 -0.055788 -0.203803
-0.152557 0.036899 -0.188942
-0.147729 0.04797 -0.190786
-0.011136 -0.125893 -0.24296
-0.034943 0.031612 -0.233866
-0.195526 0.007195 -0.172529
-0.000201 -0.102089 -0.247137
-0.038036 -0.008456 -0.232685
-0.066173 -0.095404 -0.221938
-0.049313 0.079141 -0.228378
-0.171643 -0.017791 -0.181652
-0.122524 0.039466 -0.200413
-0.17298 -0.034054 -0.181141
-0.186601 0.014021 -0.175938
-0.010841 0.000697 -0.243073
-0.040209 -0.097048 -0.231855
-0.060202 0.016967 -0.224218
-0.021926 -0.122258 -0.238839
-0.042957 0.019903 -0.230806
-0.100913 -0.002316 -0.208668
-0.128959 0.059287 -0.197956
-0.012065 0.030905 -0.242605
-0.058227 -0.051345 -0.224973
-0.111795 0.063495 -0.204512
-0.000173 0.137305 -0.247147
-0.0671 0.067143 -0.221584
-0.152549 0.020936 -0.188945
-0.016091 -0.074861 -0.241067
-0.120263 0.054609 -0.201277
-0.108381 0.00388 -0.205816
-0.066587 -0.078893 -0.22178
-0.070805 0.050072 -0.220168
-0.012746 0.066508 -0.242345
-0.012304 -0.050443 -0.242514
-0.011141 -0.057011 -0.242958
-0.167317 0.004552 -0.183304
-0.080398 -0.063757 -0.216504
-0.127446 -0.030299 -0.198534
-0.076862 -0.004857 -0.217855
-0.140921 0.022584 -0.193386
-0.059484 -0.045382 -0.224493
-0.114544 -0.066791 -0.203462
-0.080516 -0.007786 -0.216459
-0.183663 -0.034993 -0.177061
-0.104123 0.066742 -0.207442
-0.021134 -0.121557 -0.239141
-0.112122 0.033149 -0.204387
-0.000539 0.134408 -0.247008
-0.182183 -0.031164 -0.177626
-0.019464 -0.081749 -0.239779
-0.05163 -0.01835 -0.227493
-0.102246 0.002508 -0.208159
-0.175187 -0.038954 -0.180298
-0.168646 -0.032139 -0.182797
-0.014193 -0.143726 -0.241792
-0.170481 0.003718 -0.182096
-0.202266 -0.011075 -0.169955
-0.0616 0.018278 -0.223684
-0.166143 0.001913 -0.183753
-0.02279 0.042689 -0.238509
-0.034927 0.091976 -0.233873
-0.126282 0.025634 -0.198978
-0.154511 -0.045912 -0.188195
-0.021453 0.00028 -0.239019
-0.037613 0.023863 -0.232847
-0.073956 -0.077876 -0.218965
-0.206479 0.008141 -0.168345
-0.139347 -0.00585 -0.193988
-0.029656 0.082131 -0.235886
-0.044671 0.065891 -0.230151
-0.005979 0.00843 -0.24493
-5e-06 0.102432 -0.247212
-0.174181 0.020482 -0.180682
-0.049728 0.049311 -0.228219
-0.116903 -0.056147 -0.20256
-0.031895 -0.11064 -0.235031
-0.199189 0.008536 -0.17113
-0.053322 0.018292 -0.226846
-0.090485 0.05892 -0.212651
-0.069879 0.094084 -0.220522
-0.034809 -0.051866 -0.233918
-0.033427 0.064297 -0.234446
-0.137673 -0.005482 -0.194627
-0.231537 -0.00841 -0.158774
-0.178562 0.037143 -0.179009
-0.164513 0.023488 -0.184375
-0.142435 -0.033146 -0.192808
-0.176428 -0.011862 -0.179824
-0.05351 0.075007 -0.226775
-0.076255 0.031406 -0.218087
-0.080096 -0.026958 -0.21662
-0.11092 -0.000142 -0.204846
-0.112342 0.012508 -0.204303
-0.048449 0.103072 -0.228708
-0.074627 -0.015318 -0.218709
-0.068113 -0.020008 -0.221197
-0.031557 0.091984 -0.23516
-0.021913 0.074539 -0.238843
-0.060415 0.011748 -0.224137
-0.103524 -0.044732 -0.207671
-0.064468 0.102863 -0.222589
-0.105692 0.040803 -0.206843
-0.068539 -0.051712 -0.221034
-0.011862 -0.06251 -0.242683
-0.049884 0.022176 -0.22816
-0.130806 0.017956 -0.19725
-0.181813 -0.023531 -0.177767
-0.1487 0.054266 -0.190415
-0.086115 0.040563 -0.21432
-0.148124 -0.051159 -0.190635
-0.02814 -0.133341 -0.236465
-0.121338 0.066324 -0.200867
-0.135871 -0.017972 -0.195315
-0.194961 -0.002759 -0.172745
-0.003382 0.135323 -0.245922
-0.011295 0.007162 -0.242899
-0.028367 0.057706 -0.236378
-0.042018 0.077013 -0.231164
-0.051693 0.019296 -0.227469
-0.045515 -0.10228 -0.229828
-0.063845 0.078685 -0.222827
-0.081631 0.012607 -0.216033
-0.124116 -0.070196 -0.199806
-0.025017 -0.04453 -0.237658
-0.114658 0.026996 -0.203418
-0.042409 -0.020919 -0.231015
-0.139833 0.034756 -0.193802
-0.018679 0.135989 -0.240079
-0.065924 0.014274 -0.222033
-0.007668 -0.067699 -0.244285
-0.18909 0.026828 -0.174988
-0.192767 0.012514 -0.173583
-0.030396 -0.113552 -0.235604
-0.042454 0.092463 -0.230998
-0.019064 -0.136033 -0.239932
-0.027528 -0.080148 -0.236699
-0.132494 -0.059388 -0.196606
-0.013738 -0.062245 -0.241966
-0.143138 -0.031502 -0.19254
-0.085391 0.073379 -0.214597
-0.148264 0.041761 -0.190582
-0.038279 0.023117 -0.232592
-0.152171 -0.01549 -0.189089
-0.176442 -0.012894 -0.179819
-0.085822 0.040117 -0.214433
-0.041931 0.122789 -0.231197
-0.103679 -0.003437 -0.207612
-0.150247 0.026386 -0.189824
-0.127812 0.064159 -0.198394
-0.126348 -0.033359 -0.198953
-0.13894 0.004882 -0.194143
-0.16723 0.005759 -0.183337
-0.137616 0.053605 -0.194649
-0.070007 -0.104272 -0.220473
0.197782 -0.018983 -0.171667
0.01462 0.140482 -0.241629
0.085392 -0.096591 -0.214597
0.004349 0.030068 -0.245552
0.009602 0.118181 -0.243546
0.075098 0.003763 -0.218529
0.014496 -0.073497 -0.241677
0.019495 0.104148 -0.239767
0.008362 -0.003596 -0.244019
0.051508 -0.089809 -0.227539
0.144664 -0.017931 -0.191957
0.128383 -0.033108 -0.198176
0.123799 0.068563 -0.199927
0.004327 -0.138476 -0.245561
0.061672 -0.061253 -0.223657
0.182031 0.00068 -0.177684
0.122749 0.040755 -0.200328
0.02393 0.094375 -0.238073
0.115728 -0.058037 -0.203009
0.160143 -0.013368 -0.186044
0.12731 -0.044615 -0.198585
0.126987 -0.074174 -0.198709
0.163472 -0.03123 -0.184773
0.084271 -0.037855 -0.215025
0.135601 -0.030182 -0.195419
0.010698 0.009234 -0.243127
0.091304 0.044947 -0.212339
0.093271 0.013323 -0.211587
0.052637 0.119171 -0.227108
0.098358 0.089275 -0.209644
0.045289 0.009598 -0.229915
0.134124 0.041786 -0.195983
0.079192 0.068922 -0.216965
0.049225 -0.094405 -0.228411
0.042601 -0.095979 -0.230942
0.033464 0.080613 -0.234431
0.023901 -0.014928 -0.238084
0.056886 -0.010851 -0.225485
0.111021 0.003896 -0.204807
0.005989 -0.090948 -0.244926
0.016497 -0.105785 -0.240912
0.181874 -0.01115 -0.177744
0.016506 -0.001418 -0.240909
0.052304 -0.103593 -0.227235
0.097456 0.009391 -0.209989
0.012129 -0.029371 -0.242581
0.129176 -0.03429 -0.197873
0.141804 -0.041097 -0.193049
0.122836 -0.01534 -0.200294
0.087259 0.038778 -0.213884
0.133107 0.013363 -0.196371
0.115658 0.008273 -0.203036
0.099835 -0.0458 -0.20908
0.100915 0.02258 -0.208668
0.114434 -0.000333 -0.203504
0.089785 0.079931 -0.212919
0.001555 0.056893 -0.24662
0.024914 -0.116731 -0.237697
0.044439 0.064087 -0.230239
0.188628 -0.019547 -0.175164
0.062142 -0.105496 -0.223478
0.103314 0.032742 -0.207751
0.139736 -0.047296 -0.193839
0.180543 -0.024704 -0.178252
0.139818 0.062526 -0.193808
0.100299 -0.046678 -0.208903
0.073274 -0.087729 -0.219225
0.0253 -0.109532 -0.23755
0.213269 0.005423 -0.165752
0.084945 -0.020251 -0.214768
0.07883 0.093491 -0.217103
0.079496 0.030549 -0.216849
0.058997 0.036705 -0.224679
0.023998 -0.087398 -0.238047
0.054407 0.001099 -0.226432
0.061539 -0.085249 -0.223708
0.023729 -0.118246 -0.23815
0.056639 0.111739 -0.225579
0.022852 0.078291 -0.238485
0.184892 -0.033534 -0.176591
0.180074 0.001871 -0.178432
0.027034 -0.062758 -0.236887
0.047548 -0.099969 -0.229052
0.060699 0.061562 -0.224029
0.103972 -0.017167 -0.2075
0.051192 -0.030806 -0.22766
0.007397 -0.067394 -0.244388
0.127315 -0.05169 -0.198584
0.116174 -0.043684 -0.202839
0.11733 0.036129 -0.202398
0.062632 0.079593 -0.22329
0.199051 -0.001269 -0.171183
0.065706 -0.029194 -0.222116
0.049228 -0.002127 -0.22841
0.05019 -0.018614 -0.228043
0.0717 -0.000376 -0.219826
0.135816 -0.021987 -0.195336
0.018071 -0.00977 -0.240311
0.055389 -0.034987 -0.226057
0.127332 0.049636 -0.198577
0.077767 0.037797 -0.217509
0.043293 0.108233 -0.230677
0.039273 -0.111404 -0.232213
0.032457 0.097321 -0.234816
0.057703 0.115132 -0.225173
0.102292 0.069485 -0.208142
0.004214 -0.130899 -0.245604
0.142044 0.01719 -0.192958
0.084819 -0.072421 -0.214816
0.078906 -0.023094 -0.217074
0.080657 -0.090367 -0.216405
0.090264 -0.059185 -0.212736
0.069396 -0.098838 -0.220707
0.02071 -0.024508 -0.239303
0.123495 -0.063016 -0.200043
0.096548 -0.086025 -0.210336
0.05304 -0.065664 -0.226954
0.01861 -0.10413 -0.240105
0.057126 0.090772 -0.225393
0.08848 0.064388 -0.213417
0.180598 0.039448 -0.178231
0.101279 0.059303 -0.208529
0.016115 -0.021215 -0.241058
0.134584 -0.03631 -0.195807
0.123344 0.067743 -0.2001
0.057073 0.008493 -0.225414
0.058203 -0.038221 -0.224982
0.175933 -0.040166 -0.180013
0.04348 0.073371 -0.230606
0.151608 0.025211 -0.189304
0.018145 -0.027688 -0.240283
0.045927 -0.002415 -0.229671
0.099622 -0.06973 -0.209161
0.110161 0.030768 -0.205136
0.002769 -0.091841 -0.246156
0.179839 0.002394 -0.178521
0.213615 0.004985 -0.16562
0.061022 0.008199 -0.223905
0.017951 -0.072274 -0.240357
0.00829 0.003111 -0.244047
0.068811 -0.082031 -0.22093
0.128702 0.019447 -0.198054
0.029182 0.069587 -0.236067
0.008961 0.143372 -0.243791
0.168135 0.009463 -0.182992
0.010254 0.002317 -0.243297
0.031016 -0.05385 -0.235366
0.137646 0.045011 -0.194638
0.161711 -0.032415 -0.185445
0.216725 -0.002004 -0.164432
0.121847 -0.056731 -0.200672
0.054877 0.074208 -0.226252
0.155891 -0.053892 -0.187668
0.040699 -0.03253 -0.231668
0.0413 -0.012637 -0.231438
0.022935 0.09142 -0.238453
0.06589 0.040176 -0.222046
0.162175 0.03256 -0.185268
0.170626 0.03986 -0.18204
0.029229 0.023312 -0.236049
0.008062 -0.009373 -0.244134
0.169208 -0.007859 -0.182582
0.021703 -0.070479 -0.238924
0.070297 -0.051984 -0.220363
0.145191 0.023672 -0.191756
0.044894 -0.028452 -0.230065
0.001756 0.071909 -0.246543
0.028222 0.017116 -0.236434
0.063011 0.050015 -0.223146
0.12714 0.039894 -0.19865
0.000656 -0.114675 -0.246963
0.027274 0.016026 -0.236796
0.061834 -0.108107 -0.223595
0.114098 -0.001965 -0.203632
0.14051 0.059884 -0.193544
0.132935 -0.047412 -0.196437
0.047478 0.058557 -0.229078
0.157829 -0.015835 -0.186928
0.05284 -0.080179 -0.22703
0.081348 -0.014473 -0.216142
0.167316 -0.020913 -0.183305
0.005663 0.024943 -0.245051
0.049601 -0.059434 -0.228268
0.055826 -0.060342 -0.22589
0.11166 0.041864 -0.204563
0.070663 -0.023648 -0.220223
0.070083 -0.038106 -0.220444
0.018751 0.116539 -0.240051
0.001452 0.149083 -0.246659
0.150179 -0.059015 -0.18985
0.015904 -0.068764 -0.241139
0.04684 0.035985 -0.229322
0.0015 -0.146008 -0.246641
0.091562 0.019756 -0.21224
0.041953 -0.03664 -0.231189
0.031564 0.025385 -0.235157
0.02428 0.126249 -0.23794
0.03575 0.016046 -0.233558
0.024065 0.085663 -0.238021
0.038588 0.077815 -0.232474
0.057704 -0.115958 -0.225173
0.040254 -0.049753 -0.231838
0.199727 -0.019876 -0.170925
0.196205 -0.027995 -0.17227
0.011573 -0.145334 -0.242793
0.123514 -0.06243 -0.200036
0.197885 0.02517 -0.171628
0.025662 0.105117 -0.237412
0.10406 0.009113 -0.207466
0.045122 -0.118284 -0.229979
0.055254 -0.072943 -0.226108
0.023412 -0.019305 -0.238271
0.067594 -0.087475 -0.221395
0.069749 0.042819 -0.220572
0.00117 0.049087 -0.246767
0.188377 -0.02479 -0.17526
0.106757 -0.036392 -0.206436
0.093728 0.013308 -0.211413
0.14308 0.023991 -0.192562
0.056784 -0.115488 -0.225524
0.10096 -0.000209 -0.20865
0.017056 0.103616 -0.240699
0.059238 0.036249 -0.224587
0.072705 0.040018 -0.219443
0.047216 -0.080341 -0.229179
0.033749 -0.007635 -0.234323
0.039574 0.124775 -0.232098
0.144052 -0.00175 -0.192191
0.123151 -0.063314 -0.200174
0.018348 -0.139532 -0.240205
0.035016 0.109356 -0.233839
0.082239 0.025224 -0.215801
0.12898 0.014763 -0.197947
0.094175 -0.032215 -0.211242
0.202742 -0.002483 -0.169773
0.016805 -0.028377 -0.240795
0.049512 0.020724 -0.228302
0.008976 0.128368 -0.243785
0.004162 -0.033068 -0.245624
0.166175 -0.004613 -0.18374
0.094796 -0.041258 -0.211005
0.172683 0.032615 -0.181254
0.036413 -0.048172 -0.233305
0.020709 -0.138786 -0.239303
0.003255 -0.075324 -0.24597
0.062593 0.066044 -0.223305
0.040761 0.109666 -0.231644
0.074646 -0.058922 -0.218701
0.077547 0.076604 -0.217593
0.100239 -0.049426 -0.208926
0.150301 0.054785 -0.189804
0.041795 -0.067372 -0.231249
0.007661 0.016894 -0.244287
0.03436 0.118558 -0.234089
0.084905 0.012774 -0.214783
0.06777 0.050254 -0.221328
0.186882 0.03343 -0.175831
0.148222 -0.021883 -0.190598
0.042684 0.038451 -0.23091
0.051604 0.096815 -0.227503
0.014148 -0.122122 -0.241809
0.186137 -0.009129 -0.176115
0.140244 -0.065757 -0.193645
0.085167 0.088166 -0.214683
0.002038 0.088146 -0.246435
0.024356 0.099114 -0.23791
0.152741 0.015111 -0.188872
0.0579 -0.014715 -0.225098
0.195256 0.024577 -0.172632
0.162234 0.048645 -0.185246
0.107463 0.057874 -0.206166
0.046151 -0.001637 -0.229585
0.116432 0.030669 -0.202741
0.095026 -0.080999 -0.210917
0.05003 0.053175 -0.228104
0.223843 0.013035 -0.161713
0.073282 -0.012144 -0.219222
0.15615 0.035367 -0.18757
0.08475 -0.058133 -0.214842
0.030698 -0.039145 -0.235488
0.107861 -0.005179 -0.206014
0.06722 0.030893 -0.221538
0.080114 -0.087379 -0.216613
0.024051 0.08075 -0.238027
0.080384 -0.003412 -0.216509
0.184897 -0.010447 -0.176589
0.057358 -0.069085 -0.225305
0.11675 -0.040978 -0.202619
0.160419 -0.016934 -0.185939
0.158148 -0.010224 -0.186807
0.193559 0.032503 -0.173281
0.066095 0.049014 -0.221967
0.087299 -0.009659 -0.213868
0.092008 0.072148 -0.21207
0.065139 0.071747 -0.222333
0.045418 -0.093666 -0.229865
0.204381 -0.020796 -0.169147
0.044933 -0.094825 -0.230051
0.049508 -0.098455 -0.228303
0.028226 0.05646 -0.236432
0.016064 0.13915 -0.241078
0.222714 0.014191 -0.162145
0.227741 -0.009044 -0.160224
0.119225 0.050328 -0.201674
0.055484 -0.048676 -0.22602
0.139356 0.058414 -0.193984
0.000415 -0.108777 -0.247055
0.023808 0.106085 -0.23812
0.096705 0.064879 -0.210275
0.114816 -0.00919 -0.203358
0.172282 -0.000607 -0.181408
0.109457 -0.007578 -0.205405
0.066019 0.066737 -0.221997
0.015923 0.137904 -0.241132
0.158345 -0.004908 -0.186731
0.081809 -0.013033 -0.215965
0.137559 0.047764 -0.194671
0.055843 0.029759 -0.225883
0.031415 -0.049157 -0.235214
0.20652 0.00536 -0.16833
0.027746 0.032969 -0.236616
0.011021 0.011547 -0.243004
0.108062 0.028633 -0.205937
0.176344 -0.014966 -0.179856
0.033096 -0.060657 -0.234572
0.13566 0.028013 -0.195396
0.050567 -0.00055 -0.227899
0.074952 0.012446 -0.218585
0.010746 0.071724 -0.243109
0.044841 0.097968 -0.230086
0.060441 0.021585 -0.224127
0.159385 -0.006132 -0.186334
0.075116 -0.049798 -0.218522
0.084462 0.050761 -0.214952
0.125781 0.044986 -0.19917
0.036806 -0.096305 -0.233155
0.021285 -0.008015 -0.239083
0.047629 -0.054197 -0.229021
0.100471 0.061353 -0.208837
0.093107 -0.028783 -0.21165
0.009704 -0.082153 -0.243507
0.14322 0.021785 -0.192508
0.095479 -0.06198 -0.210744
0.028245 -0.055427 -0.236425
0.035082 0.019867 -0.233813
0.010342 0.070745 -0.243263
0.072042 0.053542 -0.219696
0.093394 -0.088093 -0.21154
0.061949 -0.087069 -0.223551
0.057625 -0.038591 -0.225203
0.007721 0.063018 -0.244265
0.00498 -0.006894 -0.245311
0.090398 0.081762 -0.212685
0.116381 -0.072062 -0.20276
0.100096 -0.063505 -0.20898
0.176809 0.025742 -0.179679
0.074842 0.025934 -0.218626
0.106768 -0.046719 -0.206432
0.176347 0.013062 -0.179855
0.137344 0.001915 -0.194753
0.171825 -0.024074 -0.181582
0.12054 -0.049397 -0.201171
0.062723 -0.062127 -0.223256
0.105233 -0.036865 -0.207018
0.065993 0.056854 -0.222007
0.042686 -0.002101 -0.230909
0.078315 -0.02124 -0.2173
0.140476 -0.054459 -0.193557
0.026756 0.016421 -0.236994
0.079541 0.026416 -0.216832
0.066111 0.019151 -0.221961
0.125464 -0.057355 -0.19929
0.025573 -0.079519 -0.237446
0.135201 0.023284 -0.195571
0.194713 0.027589 -0.17284
0.019715 -0.110625 -0.239683
0.097566 0.058638 -0.209947
0.019637 0.037729 -0.239713
0.04752 -0.122133 -0.229062
0.071746 -0.000674 -0.219809
0.108552 0.036338 -0.20575
0.07779 -0.019592 -0.2175
0.089717 -0.057998 -0.212945
0.067591 -0.028041 -0.221396
0.052562 0.117035 -0.227137
0.131147 -0.02938 -0.19712
0.118621 -0.015879 -0.201904
0.054339 -0.108194 -0.226458
0.130546 -0.052317 -0.19735
0.048423 -0.055826 -0.228717
0.155273 0.056576 -0.187904
0.067033 -0.096602 -0.221609
0.039935 0.033662 -0.23196
0.14264 0.029481 -0.19273
0.040182 -0.049487 -0.231865
0.035288 -0.064689 -0.233735
0.084593 -0.074338 -0.214902
0.116259 0.060646 -0.202807
0.1075 0.058619 -0.206152
0.140058 -0.00209 -0.193716
0.074463 0.049415 -0.218771
0.022443 0.023409 -0.238641
0.075081 -0.016415 -0.218535
0.074424 -0.021264 -0.218786
0.050343 -0.002095 -0.227984
0.135161 -0.066824 -0.195587
0.093683 0.02573 -0.21143
0.10174 -0.017636 -0.208353
0.031558 -0.04628 -0.23516
0.104407 0.014594 -0.207334
0.168915 0.04468 -0.182694
0.021847 -0.101369 -0.238869
0.101146 -0.029507 -0.208579
0.13556 -0.011756 -0.195434
0.029565 -0.09442 -0.235921
0.086653 -0.097757 -0.214115
0.100759 0.067212 -0.208727
0.118365 -0.063953 -0.202002
0.057242 -0.005253 -0.225349
0.070884 0.001241 -0.220138
0.124112 -0.006275 -0.199807
0.170331 0.003959 -0.182153
0.078708 0.060455 -0.21715
0.077328 -0.045917 -0.217677
0.014784 -0.024722 -0.241567
0.000926 0.075387 -0.24686
0.14111 -0.062176 -0.193314
0.137954 -0.043767 -0.19452
0.074349 -0.067688 -0.218815
0.023666 -0.103225 -0.238174
0.069516 -0.068681 -0.220661
0.027034 -0.018564 -0.236888
0.013105 0.134529 -0.242208
0.017333 0.040242 -0.240593
0.07116 -0.056691 -0.220033
0.045788 -0.041433 -0.229724
0.089441 -0.027451 -0.21305
0.189035 0.000272 -0.175009
0.12713 0.059492 -0.198654
0.10391 0.055477 -0.207524
0.189942 -0.001593 -0.174662
0.11403 0.046961 -0.203658
0.169985 0.01108 -0.182285
0.037164 -0.015761 -0.233018
0.032006 -0.039199 -0.234988
0.104863 0.017127 -0.20716
0.005828 0.014178 -0.244988
0.167379 -0.024277 -0.183281
0.010295 0.122809 -0.243281
0.037064 0.086244 -0.233056
0.025076 0.093602 -0.237636
0.028007 -0.082552 -0.236516
0.202826 -0.025726 -0.169741
0.135411 0.056752 -0.195491
0.085958 0.004095 -0.214381
0.128191 0.059503 -0.198249
0.005852 -0.11692 -0.244978
0.038327 0.037957 -0.232574
0.143558 -0.061226 -0.192379
0.111221 0.019569 -0.204731
0.07986 -0.090572 -0.21671
0.14358 0.007205 -0.192371
0.070357 -0.077267 -0.22034
0.020188 0.07917 -0.239502
0.179042 -0.013636 -0.178826
0.15734 0.022636 -0.187115
0.141376 -0.055773 -0.193213
0.156728 0.053953 -0.187349
0.024302 0.133011 -0.237931
0.182873 0.021945 -0.177362
0.036067 0.081053 -0.233437
0.08248 0.033548 -0.215709
0.198351 -0.029832 -0.17145
0.120811 -0.050474 -0.201068
0.218175 -0.005593 -0.163878
0.05763 -0.08355 -0.225201
0.227532 0.003093 -0.160304
0.052365 -0.02561 -0.227212
0.020953 -0.106004 -0.23921
0.06775 -0.008221 -0.221336
0.204576 0.024589 -0.169073
0.117864 0.006912 -0.202194
0.129653 0.002625 -0.19769
0.087273 0.05292 -0.213878
0.073499 -0.039372 -0.21914
0.058443 0.066312 -0.22489
0.018355 0.138753 -0.240203
0.113635 0.053509 -0.203809
0.054358 -0.029607 -0.226451
0.037774 -0.087614 -0.232785
0.067885 0.031954 -0.221284
0.218674 -0.00029 -0.163687
0.145872 -0.011421 -0.191495
0.029463 0.117472 -0.23596
0.069537 -0.06189 -0.220653
0.027051 -0.079107 -0.236881
0.079846 0.087278 -0.216715
0.017068 0.058753 -0.240694
0.089333 0.034467 -0.213091
0.033389 -0.032979 -0.23446
0.041469 -0.234618 -0.032976
-0.02931 -0.22997 -0.045143
0.051166 -0.196179 -0.133611
0.135285 -0.237199 -0.026218
0.09392 -0.245866 -0.003529
0.027381 -0.172933 -0.19447
-0.033372 -0.237085 -0.026518
-0.02716 -0.212138 -0.091828
0.080582 -0.234186 -0.034106
-0.000705 -0.18031 -0.175156
-0.100491 -0.241359 -0.015327
0.03527 -0.216117 -0.081411
-0.049905 -0.21301 -0.089546
-0.050235 -0.219838 -0.071671
0.07253 -0.232645 -0.038142
-0.003046 -0.224139 -0.060411
-0.048652 -0.222114 -0.065713
0.104973 -0.237136 -0.026382
0.042136 -0.195636 -0.135031
0.112862 -0.224564 -0.059297
-0.035595 -0.208984 -0.100087
0.076351 -0.205479 -0.109263
0.049229 -0.234973 -0.032046
-0.045382 -0.231234 -0.041835
0.092283 -0.231194 -0.041939
-0.121839 -0.237304 -0.025942
0.078896 -0.218403 -0.075428
0.038164 -0.180281 -0.175232
0.043502 -0.209265 -0.099352
0.001136 -0.214437 -0.08581
0.074125 -0.227081 -0.052708
0.023238 -0.231483 -0.041183
-0.110812 -0.223935 -0.060945
0.055852 -0.245621 -0.004169
-0.111795 -0.244599 -0.006845
-0.040207 -0.243437 -0.009888
-0.008837 -0.177354 -0.182894
0.140438 -0.246604 -0.001596
0.041012 -0.238297 -0.023344
0.001072 -0.242358 -0.012713
0.065306 -0.220658 -0.069524
-0.05786 -0.196483 -0.132815
-0.056452 -0.206385 -0.106892
-0.03118 -0.240866 -0.016618
-0.008219 -0.195642 -0.135015
0.055368 -0.235145 -0.031597
0.090523 -0.212476 -0.090945
0.080676 -0.211107 -0.094527
-0.066372 -0.198865 -0.126578
-0.032367 -0.247057 -0.00041
-0.091573 -0.232441 -0.038676
-0.036227 -0.179588 -0.177047
-0.065044 -0.229922 -0.045271
-0.102458 -0.237607 -0.02515
0.016419 -0.219155 -0.073457
-0.030414 -0.186718 -0.158381
-0.011104 -0.197545 -0.130035
-0.095153 -0.219046 -0.073743
0.150774 -0.246988 -0.000592
0.008142 -0.219575 -0.072358
-0.060863 -0.241663 -0.014532
-0.085911 -0.226607 -0.05395
0.028516 -0.188869 -0.152747
-0.000904 -0.214443 -0.085795
-0.037261 -0.191961 -0.144653
0.05145 -0.188643 -0.153339
0.090485 -0.211228 -0.094212
-0.052068 -0.242736 -0.011723
0.031433 -0.205709 -0.10866
-0.000539 -0.221997 -0.066019
-0.021972 -0.223385 -0.062384
-0.040087 -0.198462 -0.127633
0.119053 -0.244041 -0.008307
-0.054246 -0.190761 -0.147795
0.058013 -0.212366 -0.091233
0.032746 -0.192894 -0.14221
-0.091487 -0.223927 -0.060965
-0.063231 -0.240774 -0.016859
0.014374 -0.163423 -0.219367
0.067554 -0.207494 -0.103986
-0.065083 -0.22295 -0.063522
-0.05331 -0.236561 -0.027889
0.017629 -0.228281 -0.049565
-0.017875 -0.24247 -0.01242
0.016479 -0.191555 -0.145716
-0.099524 -0.232029 -0.039754
0.001966 -0.154211 -0.243484
0.058844 -0.21692 -0.079309
-0.086539 -0.23071 -0.043207
-0.029463 -0.209061 -0.099885
0.035968 -0.203433 -0.114619
-0.016937 -0.196292 -0.133315
0.054489 -0.212902 -0.08983
0.031607 -0.193117 -0.141628
-0.026041 -0.207908 -0.102903
0.003456 -0.235524 -0.030603
0.017305 -0.227526 -0.051542
0.007307 -0.16181 -0.223591
-0.005911 -0.181733 -0.171431
0.078367 -0.206946 -0.105423
0.088763 -0.215934 -0.081892
0.03758 -0.182371 -0.169759
0.04382 -0.192365 -0.143595
0.0013 -0.15834 -0.232674
-0.083264 -0.205355 -0.109588
0.080248 -0.244889 -0.006087
-0.077292 -0.223999 -0.060776
-0.062625 -0.195599 -0.135129
-0.043429 -0.201782 -0.118942
0.076224 -0.235663 -0.03024
0.083548 -0.237245 -0.026099
-0.052597 -0.239057 -0.021355
0.01607 -0.234524 -0.033221
-0.059828 -0.200294 -0.122836
-0.1001 -0.222336 -0.06513
0.125327 -0.230934 -0.042621
0.057978 -0.199906 -0.123854
-0.091881 -0.21321 -0.089022
-0.074686 -0.205267 -0.109818
0.054413 -0.214395 -0.085921
-0.062954 -0.233118 -0.036904
-0.079481 -0.240338 -0.018
-0.088671 -0.214738 -0.085023
-0.023572 -0.186366 -0.159302
-0.023947 -0.174339 -0.190789
0.031451 -0.228188 -0.049809
-0.00383 -0.160164 -0.227898
0.000583 -0.170958 -0.199639
-0.070197 -0.231755 -0.040472
-0.027348 -0.209402 -0.098993
-0.083514 -0.220912 -0.068858
-0.019107 -0.234982 -0.032023
0.104727 -0.236256 -0.028687
-0.029684 -0.220815 -0.069111
-0.054148 -0.212691 -0.090381
0.004752 -0.215528 -0.082954
0.071409 -0.215782 -0.08229
-0.035514 -0.202989 -0.11578
0.104874 -0.238623 -0.022491
-0.100716 -0.219515 -0.072517
0.084593 -0.230381 -0.044067
0.018924 -0.168717 -0.205508
0.125253 -0.245555 -0.004343
0.079976 -0.243544 -0.009607
-0.039044 -0.189096 -0.152154
0.004986 -0.243816 -0.008895
0.055836 -0.191539 -0.145757
0.143095 -0.242687 -0.01185
0.001463 -0.163501 -0.219163
0.072546 -0.225831 -0.055981
0.028931 -0.235969 -0.029439
-0.067504 -0.229746 -0.045731
-0.090123 -0.238517 -0.022767
0.01656 -0.171183 -0.199051
-0.146557 -0.246996 -0.000569
-0.127952 -0.242407 -0.012585
0.007714 -0.188862 -0.152765
-0.032597 -0.22343 -0.062265
0.090011 -0.215082 -0.084122
-0.003233 -0.218793 -0.074406
0.114496 -0.233678 -0.035436
-0.059299 -0.220593 -0.069693
0.088766 -0.209254 -0.099378
0.10085 -0.219837 -0.071672
0.019858 -0.238263 -0.023432
0.076186 -0.237663 -0.025004
-0.091939 -0.230538 -0.043658
0.005604 -0.164485 -0.216586
-0.043449 -0.183811 -0.16599
-0.004973 -0.241981 -0.013698
0.054378 -0.191511 -0.145832
0.049158 -0.24532 -0.004957
0.023006 -0.199491 -0.124939
-0.087342 -0.220394 -0.070214
-0.01917 -0.223231 -0.062788
-0.062486 -0.231596 -0.040887
-0.017499 -0.203731 -0.11384
0.055036 -0.227117 -0.052614
-0.007857 -0.197371 -0.130489
-0.106368 -0.236614 -0.027751
-0.041802 -0.235564 -0.030498
0.031707 -0.21346 -0.088367
0.060209 -0.236429 -0.028235
-0.040279 -0.184691 -0.163687
-0.032308 -0.182579 -0.169215
0.103765 -0.235221 -0.031397
0.07638 -0.242346 -0.012743
0.014524 -0.201575 -0.119482
-0.005487 -0.23216 -0.03941
0.121772 -0.22914 -0.047318
0.01193 -0.213254 -0.088907
0.025348 -0.21433 -0.086089
-0.010221 -0.160025 -0.228264
-0.008592 -0.209739 -0.098109
-0.107259 -0.232296 -0.039054
-0.000725 -0.162108 -0.222808
-0.03259 -0.225433 -0.057021
-0.024309 -0.201626 -0.11935
-0.015274 -0.201129 -0.120651
-0.012507 -0.176338 -0.185554
-0.009205 -0.216081 -0.081506
-0.064953 -0.204533 -0.111738
-0.016662 -0.207676 -0.103511
0.115076 -0.234481 -0.033334
-0.017587 -0.19581 -0.134578
0.019981 -0.207549 -0.103844
0.047212 -0.19358 -0.140414
-0.140501 -0.246442 -0.00202
-0.01949 -0.230754 -0.043091
-0.036546 -0.220629 -0.0696
0.012792 -0.210209 -0.096879
-0.033717 -0.197747 -0.129506
-0.028904 -0.182105 -0.170456
0.099844 -0.224119 -0.060462
-0.065804 -0.225426 -0.057041
0.090646 -0.229953 -0.045189
0.026533 -0.189264 -0.151715
0.081704 -0.228367 -0.04934
-0.078538 -0.215745 -0.082387
-0.06516 -0.224589 -0.059231
-0.053617 -0.191452 -0.145985
0.127196 -0.242162 -0.013226
0.096284 -0.237018 -0.026694
0.12634 -0.23412 -0.03428
0.098476 -0.243945 -0.008557
0.011875 -0.225621 -0.05653
-0.04412 -0.238933 -0.02168
-0.024417 -0.233423 -0.036104
0.126217 -0.233742 -0.035269
-0.137813 -0.246977 -0.000618
-0.073242 -0.236353 -0.028432
-0.00818 -0.206788 -0.105836
0.067277 -0.236335 -0.028481
-0.032925 -0.221332 -0.067759
-0.036638 -0.187712 -0.155778
-0.053816 -0.191759 -0.145183
0.073009 -0.221119 -0.068315
0.084194 -0.23914 -0.021136
0.080844 -0.235991 -0.029382
0.034748 -0.190439 -0.148638
-0.044698 -0.222511 -0.064671
-0.009134 -0.177822 -0.181668
-0.070458 -0.215688 -0.082536
-0.048376 -0.220758 -0.069261
-0.007907 -0.22462 -0.05915
0.034394 -0.192023 -0.144492
0.057701 -0.191203 -0.146637
0.034304 -0.216262 -0.081032
0.059457 -0.241989 -0.013677
0.048837 -0.237293 -0.025972
0.017519 -0.179515 -0.177237
-0.050948 -0.235775 -0.029947
-0.082782 -0.234107 -0.034314
-0.036613 -0.22556 -0.056689
0.012364 -0.236847 -0.02714
-0.10889 -0.230683 -0.043279
-0.02157 -0.184462 -0.164286
0.005163 -0.232918 -0.037427
0.01021 -0.183626 -0.166475
0.129128 -0.237918 -0.024335
-0.061862 -0.246936 -0.000726
-0.094729 -0.232148 -0.039443
-0.000474 -0.221898 -0.066276
0.063828 -0.234242 -0.033961
-0.106137 -0.239117 -0.021196
-0.03921 -0.222798 -0.063921
-0.123721 -0.245043 -0.005682
0.078243 -0.241264 -0.015575
0.002021 -0.211471 -0.093575
0.09839 -0.223252 -0.062732
0.01334 -0.225204 -0.057621
-0.035867 -0.224128 -0.060439
0.055119 -0.19916 -0.125807
0.029594 -0.220479 -0.069993
-0.062173 -0.223985 -0.060814
0.083713 -0.204762 -0.111139
-0.039466 -0.236482 -0.028096
-0.080424 -0.20382 -0.113607
0.085696 -0.212893 -0.089853
-0.031332 -0.199879 -0.123924
-0.021012 -0.187614 -0.156033
0.020637 -0.227718 -0.051039
-0.050611 -0.196631 -0.132427
-0.111071 -0.221751 -0.066663
0.091918 -0.22752 -0.05156
0.049164 -0.214786 -0.084896
-0.111007 -0.222637 -0.064342
0.046746 -0.227082 -0.052704
0.07167 -0.203181 -0.11528
-0.013258 -0.17713 -0.183481
-0.132047 -0.245132 -0.005449
-0.031214 -0.229504 -0.046364
-0.050786 -0.202115 -0.118071
-0.098692 -0.229622 -0.046056
0.127744 -0.233475 -0.035967
-0.007697 -0.201693 -0.119175
-0.069621 -0.229873 -0.045397
-0.074442 -0.204256 -0.112465
-0.109015 -0.225906 -0.055785
-0.049331 -0.235453 -0.030788
0.061775 -0.232405 -0.038768
0.041718 -0.241592 -0.014719
0.010911 -0.164231 -0.217252
0.055652 -0.235333 -0.031103
-0.058179 -0.241521 -0.014903
-0.111783 -0.240242 -0.018253
0.044063 -0.197809 -0.129343
-0.037501 -0.197365 -0.130505
-0.055528 -0.23507 -0.031792
-0.047118 -0.231052 -0.042313
-0.039508 -0.217813 -0.076971
0.053617 -0.23774 -0.024801
-0.106149 -0.228383 -0.049299
0.072928 -0.217112 -0.078806
0.07123 -0.198918 -0.126439
0.074299 -0.220338 -0.07036
0.012525 -0.219848 -0.071643
0.005182 -0.181557 -0.171892
-0.021705 -0.197702 -0.129624
0.135982 -0.247134 -0.000209
0.0959 -0.238542 -0.022702
-0.020831 -0.191255 -0.146502
0.058735 -0.198724 -0.126946
-0.123391 -0.24623 -0.002575
-0.000494 -0.164746 -0.215902
-0.010194 -0.223802 -0.061292
-0.02894 -0.208819 -0.100519
-0.133539 -0.243589 -0.009488
-0.061589 -0.235764 -0.029976
-0.03215 -0.219473 -0.072625
-0.016888 -0.231274 -0.041731
-0.061004 -0.235555 -0.030523
-0.099858 -0.234909 -0.032214
0.089394 -0.220099 -0.070986
-0.01925 -0.164731 -0.215943
0.13668 -0.237926 -0.024314
0.013739 -0.190224 -0.1492
-0.070132 -0.236441 -0.028204
-0.066167 -0.196554 -0.132629
-0.04553 -0.239768 -0.019493
0.000219 -0.162585 -0.221559
-0.012136 -0.180641 -0.174289
0.048981 -0.216906 -0.079345
-0.131978 -0.238906 -0.02175
0.100114 -0.2339 -0.034854
0.037838 -0.207451 -0.104099
-0.022136 -0.22152 -0.067266
0.05224 -0.225449 -0.05698
0.048094 -0.209547 -0.098612
-0.044412 -0.236631 -0.027707
-0.008841 -0.225633 -0.056499
0.064645 -0.231558 -0.040987
-0.026405 -0.182936 -0.168281
0.07403 -0.227834 -0.050736
-0.012001 -0.21105 -0.094677
-0.010315 -0.164915 -0.215461
-0.099909 -0.220696 -0.069423
-0.14285 -0.245756 -0.003817
0.010346 -0.165166 -0.214803
0.004534 -0.218257 -0.075809
-0.056269 -0.204172 -0.112685
0.058903 -0.219915 -0.071468
0.026087 -0.244181 -0.007939
0.002577 -0.230401 -0.044016
0.040495 -0.235193 -0.031471
0.10364 -0.217423 -0.077992
0.056788 -0.245369 -0.004828
-0.092188 -0.222103 -0.065741
-0.022839 -0.178537 -0.179799
0.068172 -0.236037 -0.029261
-0.102211 -0.239724 -0.019609
-0.083462 -0.210546 -0.095997
-0.048575 -0.188067 -0.154849
-0.076726 -0.225404 -0.057098
-0.00115 -0.181447 -0.172178
0.079063 -0.246055 -0.003032
0.02672 -0.215878 -0.082037
-0.018254 -0.239403 -0.020449
0.036544 -0.23282 -0.037683
-0.046318 -0.210596 -0.095866
-0.016315 -0.164349 -0.216943
-0.022515 -0.23856 -0.022654
-0.101108 -0.223658 -0.06167
0.057571 -0.19384 -0.139733
0.079984 -0.220154 -0.070844
0.087556 -0.227674 -0.051155
-0.006542 -0.177666 -0.182079
0.015976 -0.191306 -0.146367
0.038836 -0.188982 -0.152454
-0.018793 -0.206847 -0.10568
0.054416 -0.234569 -0.033103
-0.019897 -0.19265 -0.14285
-0.097839 -0.240362 -0.017938
0.055897 -0.220797 -0.069161
-0.103448 -0.225011 -0.058126
0.028045 -0.180765 -0.173965
-0.066632 -0.199645 -0.124536
0.078567 -0.221791 -0.066556
-0.032981 -0.190277 -0.149061
0.00173 -0.195751 -0.134731
-0.03667 -0.189888 -0.15008
-0.035523 -0.181718 -0.171471
0.003166 -0.159853 -0.228713
0.023174 -0.236429 -0.028233
-0.075615 -0.228793 -0.048227
0.024537 -0.245857 -0.003551
-0.03719 -0.240206 -0.018345
-0.083127 -0.213667 -0.087826
0.013669 -0.182641 -0.169053
-0.029164 -0.243442 -0.009875
0.017189 -0.184575 -0.16399
-0.008339 -0.207189 -0.104786
-0.085455 -0.231513 -0.041105
0.071417 -0.226344 -0.054638
-0.078822 -0.202332 -0.117502
0.071355 -0.208678 -0.100887
-0.015438 -0.211744 -0.09286
0.081708 -0.203873 -0.113467
0.052879 -0.221147 -0.068244
-0.083525 -0.213814 -0.087441
-0.00507 -0.246352 -0.002257
-0.020154 -0.212383 -0.091189
-0.025717 -0.185926 -0.160452
0.01855 -0.199147 -0.12584
-0.050759 -0.237411 -0.025663
-0.116777 -0.240907 -0.016512
-0.106587 -0.2424 -0.012603
0.008459 -0.208856 -0.100422
0.079376 -0.245756 -0.003816
-0.063967 -0.237817 -0.024601
-0.039819 -0.197538 -0.130054
0.078151 -0.24381 -0.00891
0.017887 -0.171981 -0.196961
0.047707 -0.185685 -0.161083
-0.038714 -0.237932 -0.024299
0.041598 -0.218426 -0.075368
0.061807 -0.241445 -0.015102
0.019891 -0.17385 -0.192069
-0.08292 -0.211191 -0.094308
-0.055246 -0.240826 -0.016722
0.07194 -0.230519 -0.043707
-0.043806 -0.180835 -0.173781
0.056095 -0.216098 -0.081461
-0.032357 -0.232091 -0.039591
-0.037863 -0.207315 -0.104455
0.043089 -0.243946 -0.008554
0.006856 -0.195347 -0.135789
0.055941 -0.198928 -0.126413
-0.097325 -0.224296 -0.059998
-0.010312 -0.228739 -0.048368
0.000842 -0.213388 -0.088557
0.104214 -0.245368 -0.004833
0.009306 -0.176297 -0.185662
0.025939 -0.221509 -0.067295
0.102681 -0.225095 -0.057908
0.031582 -0.244122 -0.008095
0.147338 -0.244998 -0.0058
-0.107866 -0.231871 -0.040166
0.076567 -0.208879 -0.100362
-0.027929 -0.236283 -0.028618
-0.110413 -0.245733 -0.003876
-0.002484 -0.17471 -0.189816
0.02625 -0.204639 -0.111463
-0.084739 -0.2114 -0.093762
-0.119931 -0.229935 -0.045235
-0.018954 -0.173264 -0.193604
0.10765 -0.229488 -0.046405
-0.128143 -0.243811 -0.008907
0.071117 -0.236679 -0.027581
0.088772 -0.220338 -0.070361
0.094836 -0.240176 -0.018425
-0.097281 -0.226649 -0.053838
-0.004793 -0.189504 -0.151086
0.114962 -0.234825 -0.032435
0.053366 -0.24205 -0.013518
-0.126716 -0.242691 -0.011841
0.048746 -0.194878 -0.137016
-0.040702 -0.219422 -0.07276
0.005805 -0.196529 -0.132695
-0.007165 -0.225407 -0.05709
0.058144 -0.237102 -0.026472
0.029784 -0.24148 -0.015011
-0.014346 -0.218952 -0.073989
0.040352 -0.218013 -0.076448
-0.103021 -0.228572 -0.048804
0.034082 -0.205262 -0.109831
0.090734 -0.241782 -0.014221
-0.013927 -0.163307 -0.21967
-0.024225 -0.23298 -0.037264
0.05424 -0.229092 -0.047444
0.022531 -0.168691 -0.205575
-0.020459 -0.244206 -0.007875
-0.007777 -0.172059 -0.196758
0.052816 -0.228891 -0.04797
0.088701 -0.230166 -0.04463
-0.099801 -0.240475 -0.017643
-0.028781 -0.181291 -0.172587
0.070236 -0.203017 -0.115708
0.01904 -0.205695 -0.108697
-0.075534 -0.215989 -0.081746
-0.000663 -0.216085 0.081496
-0.041051 -0.194157 0.138904
-0.085301 -0.243306 0.01023
0.015057 -0.193551 0.14049
0.073626 -0.238527 0.022741
-0.034588 -0.215648 0.08264
0.033212 -0.185448 0.161704
0.020282 -0.246982 0.000607
-0.002862 -0.199566 0.124743
0.008815 -0.183931 0.165675
-0.12798 -0.234221 0.034015
-0.105167 -0.242563 0.012176
-0.09277 -0.221839 0.066433
0.02457 -0.222007 0.065993
0.082584 -0.238981 0.021553
0.08151 -0.2273 0.052135
0.04687 -0.184599 0.163927
0.011958 -0.191762 0.145173
0.016796 -0.173747 0.192338
-0.062156 -0.196511 0.13274
-0.050642 -0.244482 0.007152
-0.075146 -0.215846 0.082121
-0.021073 -0.233188 0.036719
0.098871 -0.235201 0.03145
-0.131939 -0.239127 0.02117
0.055639 -0.225183 0.057676
0.065953 -0.220377 0.070258
-0.036984 -0.197275 0.130742
-0.017364 -0.232223 0.039246
-0.054327 -0.210662 0.095694
0.006484 -0.220107 0.070967
0.068882 -0.198812 0.126716
0.002253 -0.240241 0.018255
-0.07696 -0.228187 0.049813
-0.065328 -0.208789 0.100597
0.057869 -0.194836 0.137126
-0.016701 -0.19602 0.134027
0.069632 -0.232615 0.03822
0.09146 -0.244172 0.007962
-0.089889 -0.242284 0.012905
0.001749 -0.222542 0.064592
-0.041346 -0.213272 0.08886
0.047884 -0.236008 0.029337
-0.120499 -0.230908 0.042687
-0.060125 -0.215803 0.082234
0.058758 -0.246985 0.000598
0.082769 -0.208045 0.102545
0.053096 -0.217604 0.077519
0.125334 -0.240003 0.018878
-0.026145 -0.193475 0.14069
0.101317 -0.235286 0.031226
0.040715 -0.200917 0.121205
-0.00071 -0.231696 0.040627
0.065238 -0.21806 0.076325
-0.034922 -0.196406 0.133016
-0.020687 -0.240137 0.018527
0.00209 -0.214637 0.085286
0.056414 -0.20544 0.109364
-0.048104 -0.236706 0.027509
-0.126624 -0.241923 0.013851
-0.014971 -0.173247 0.193647
0.078121 -0.205381 0.109519
-0.111592 -0.225544 0.056732
0.133024 -0.247164 0.000129
-0.077599 -0.232932 0.03739
0.017358 -0.164457 0.216659
0.005658 -0.194928 0.136885
0.042097 -0.19312 0.141619
-0.034315 -0.178538 0.179794
0.094215 -0.22994 0.045223
0.042261 -0.192066 0.144379
-0.056096 -0.225068 0.057978
0.096668 -0.237008 0.02672
0.104139 -0.224599 0.059207
0.091032 -0.222568 0.064523
-0.086913 -0.215383 0.083333
-0.104681 -0.223175 0.062934
-0.126539 -0.242021 0.013596
-0.07674 -0.236258 0.028683
-0.086048 -0.24684 0.000977
0.04837 -0.185779 0.160838
0.047972 -0.235568 0.030489
0.122785 -0.23064 0.043389
0.11527 -0.230964 0.042542
-0.014188 -0.202565 0.116891
0.039758 -0.211945 0.092335
0.083311 -0.234237 0.033972
-0.082162 -0.203717 0.113874
0.027697 -0.220021 0.071191
-0.047084 -0.230316 0.044238
-0.041664 -0.182155 0.170325
-0.089925 -0.235265 0.031283
0.003565 -0.195474 0.135457
-0.11466 -0.233901 0.034854
-0.076121 -0.243964 0.008508
0.034563 -0.239517 0.020151
-0.002654 -0.196012 0.134048
0.075759 -0.240651 0.017181
-0.082669 -0.218672 0.074724
-0.120347 -0.247033 0.000473
-0.054591 -0.197032 0.131377
-0.032759 -0.245449 0.004619
-0.014444 -0.208546 0.101234
-0.068314 -0.19694 0.131618
-0.087958 -0.217016 0.07906
0.035399 -0.179156 0.178177
-0.049888 -0.187677 0.155869
0.02711 -0.215034 0.084248
-0.007254 -0.171497 0.198228
0.042302 -0.239034 0.021413
-0.142918 -0.245988 0.00321
0.014497 -0.203454 0.114564
0.032364 -0.197903 0.129098
0.085968 -0.232084 0.039611
0.054164 -0.21042 0.096327
-0.017237 -0.231757 0.040465
-0.003674 -0.224765 0.058772
-0.079108 -0.246117 0.00287
-0.016875 -0.168028 0.20731
0.000904 -0.162318 0.22226
0.027461 -0.246225 0.002587
0.064861 -0.217766 0.077094
-0.081255 -0.219251 0.073208
0.020974 -0.192249 0.143898
-0.105739 -0.240064 0.018717
-0.038035 -0.220495 0.069949
-0.065238 -0.222056 0.065863
0.015444 -0.172291 0.19615
-0.006388 -0.199282 0.125487
0.088192 -0.215874 0.082047
-0.037263 -0.223079 0.063185
0.077013 -0.226402 0.054486
0.011575 -0.230518 0.04371
0.080088 -0.223127 0.063059
0.020885 -0.243061 0.01087
0.026012 -0.211862 0.092552
0.053168 -0.224767 0.058766
-0.100939 -0.217217 0.078533
-0.106274 -0.232189 0.039334
-0.096687 -0.231835 0.040262
-0.125248 -0.240312 0.018069
0.044741 -0.199687 0.124426
0.035295 -0.239619 0.019882
0.001156 -0.189444 0.151243
0.026222 -0.181781 0.171304
0.081605 -0.207713 0.103413
0.017643 -0.195576 0.135188
0.021198 -0.218831 0.074307
-0.011853 -0.225828 0.055989
-0.014535 -0.185299 0.162093
0.023381 -0.228702 0.048464
-0.032003 -0.19232 0.143714
0.005871 -0.230508 0.043737
-0.030649 -0.182555 0.169279
0.013508 -0.200189 0.123113
0.071431 -0.224228 0.060178
0.022292 -0.178076 0.181004
0.022584 -0.222475 0.064768
-0.039401 -0.191338 0.146285
0.039368 -0.220309 0.070437
-0.085134 -0.210615 0.095815
-0.043422 -0.223147 0.063006
-0.057213 -0.220597 0.069683
-0.004327 -0.157623 0.234552
-0.016759 -0.175222 0.188476
0.021749 -0.194857 0.13707
0.050026 -0.240511 0.017548
-0.008306 -0.229611 0.046085
-0.042823 -0.211784 0.092755
0.107985 -0.247067 0.000383
0.0437 -0.234114 0.034296
-0.07478 -0.234806 0.032484
0.006673 -0.187821 0.155491
0.125993 -0.234315 0.033768
0.080214 -0.242411 0.012572
-0.103669 -0.227304 0.052123
0.00152 -0.189845 0.150194
-0.048972 -0.212562 0.090719
0.023528 -0.199001 0.126224
-0.006869 -0.203747 0.113797
-0.057555 -0.229277 0.04696
-0.07983 -0.223727 0.061489
-0.022756 -0.198241 0.128211
0.047315 -0.219066 0.07369
0.070578 -0.231068 0.04227
-0.017228 -0.179273 0.177872
0.067795 -0.222361 0.065064
0.006583 -0.180839 0.173772
0.086439 -0.209166 0.099611
0.098466 -0.219338 0.07298
0.039191 -0.184787 0.163435
-0.089557 -0.24095 0.016398
0.13188 -0.245968 0.003261
-0.03644 -0.185646 0.161186
-0.024658 -0.209661 0.098314
0.009384 -0.231661 0.040717
-0.018886 -0.229046 0.047563
0.039368 -0.233182 0.036735
-0.003394 -0.206515 0.106549
0.04125 -0.210806 0.095317
0.010705 -0.193391 0.140909
0.002247 -0.244006 0.008399
-0.10617 -0.22173 0.066718
-0.021322 -0.24557 0.004304
-0.071022 -0.19836 0.127901
0.082455 -0.234549 0.033155
0.022852 -0.175721 0.187169
-0.003133 -0.223714 0.061524
0.031239 -0.216543 0.080296
-0.012985 -0.237335 0.025863
0.02887 -0.174336 0.190797
-0.021535 -0.217082 0.078885
0.020114 -0.175189 0.188563
-0.007084 -0.239735 0.01958
0.093937 -0.223365 0.062436
-0.081158 -0.220921 0.068834
0.121137 -0.228921 0.047889
-0.048491 -0.201883 0.118678
0.001501 -0.182766 0.168727
-0.010522 -0.230743 0.043121
-0.042461 -0.231556 0.040992
-0.075894 -0.215411 0.08326
0.062724 -0.210512 0.096087
-0.114358 -0.23402 0.03454
-0.011203 -0.165271 0.214529
0.005925 -0.176851 0.184212
0.011762 -0.160996 0.225721
-0.0276 -0.21727 0.078394
0.026539 -0.230234 0.044454
0.044968 -0.231382 0.041449
-0.003803 -0.187073 0.157449
0.044992 -0.2053 0.109731
-0.005176 -0.160399 0.227284
0.026477 -0.193289 0.141177
-0.014678 -0.164094 0.217611
0.016356 -0.173374 0.193314
-0.073643 -0.239062 0.021341
0.065998 -0.218098 0.076225
0.148717 -0.246862 0.00092
-0.01051 -0.166069 0.212439
-0.043368 -0.221686 0.066833
-0.063722 -0.234305 0.033795
0.097625 -0.231977 0.039889
0.057111 -0.22065 0.069544
0.009867 -0.174443 0.190516
-0.099886 -0.221414 0.067544
0.016373 -0.185296 0.162104
-0.07347 -0.221108 0.068344
-0.041427 -0.227031 0.052839
0.015098 -0.167418 0.208909
0.044484 -0.20982 0.097898
-0.101329 -0.228379 0.049308
-0.002492 -0.163114 0.220176
0.143124 -0.241974 0.013718
0.020055 -0.203543 0.11433
-0.040215 -0.24149 0.014985
-0.033791 -0.216457 0.080523
0.100105 -0.223177 0.062928
-0.070533 -0.206665 0.106159
0.056662 -0.244348 0.007503
-0.02863 -0.175207 0.188516
0.095342 -0.222524 0.064638
0.120449 -0.246953 0.000681
0.045518 -0.206561 0.10643
-0.071606 -0.24533 0.004933
-0.113475 -0.231293 0.04168
0.057568 -0.243282 0.010292
0.119004 -0.237556 0.025283
0.031026 -0.205288 0.109763
-0.004561 -0.172317 0.196083
-0.077356 -0.242809 0.011532
0.019727 -0.220362 0.070298
-0.027568 -0.216808 0.079602
0.088721 -0.226318 0.054706
-0.029154 -0.198939 0.126384
0.04824 -0.211064 0.09464
0.107138 -0.231728 0.040542
0.077199 -0.208872 0.10038
-0.036872 -0.208956 0.100159
-0.024927 -0.175016 0.189016
0.004527 -0.243495 0.009736
0.055475 -0.220967 0.068714
-0.114614 -0.236008 0.029338
-0.001495 -0.230718 0.043186
-0.003409 -0.227112 0.052628
-0.020364 -0.242048 0.013523
-0.038663 -0.191694 0.145352
0.042413 -0.200317 0.122776
-0.030856 -0.213365 0.088618
-0.090389 -0.223037 0.063295
0.061737 -0.237826 0.024576
-0.062804 -0.225589 0.056613
-0.112741 -0.232683 0.038042
0.102753 -0.231529 0.041063
-0.03895 -0.188882 0.152713
-0.087862 -0.209306 0.099242
-0.151929 -0.246812 0.001051
0.012069 -0.240264 0.018195
0.020373 -0.216923 0.079301
-0.063529 -0.22435 0.059859
-0.001784 -0.205189 0.110023
-0.008948 -0.202402 0.117319
0.043801 -0.184546 0.164067
-0.004698 -0.203566 0.114271
-0.077546 -0.246822 0.001027
-0.12298 -0.243894 0.008692
-0.012522 -0.232549 0.038392
0.026533 -0.217424 0.077991
-0.011809 -0.244643 0.00673
0.004628 -0.239637 0.019836
0.030067 -0.213534 0.088174
0.113779 -0.230488 0.043788
0.014857 -0.170678 0.200372
0.015135 -0.246895 0.000833
-0.016523 -0.17451 0.19034
0.020886 -0.230583 0.043538
-0.056313 -0.206025 0.107832
0.008757 -0.174327 0.190819
0.035356 -0.196147 0.133693
0.021481 -0.216444 0.080556
0.055862 -0.235961 0.02946
0.070009 -0.236279 0.028628
0.043609 -0.241488 0.014991
0.065743 -0.198857 0.126598
-0.030442 -0.193447 0.140762
-0.042707 -0.191612 0.145568
0.079485 -0.235998 0.029362
-0.051102 -0.19738 0.130467
-0.095823 -0.221314 0.067805
-0.00445 -0.176701 0.184604
0.020159 -0.242064 0.013483
-0.034802 -0.196784 0.132027
-0.021083 -0.213122 0.089254
-0.092671 -0.245919 0.003388
0.005342 -0.236357 0.028423
-0.040901 -0.194832 0.137136
0.002215 -0.226017 0.055493
-0.01616 -0.241247 0.015622
-0.033178 -0.220438 0.0701
-0.017588 -0.191974 0.144618
-0.012021 -0.17136 0.198588
0.041981 -0.210903 0.095063
0.019132 -0.176291 0.185677
-0.054413 -0.223473 0.062154
0.034726 -0.244123 0.008092
0.020768 -0.190489 0.148508
0.014082 -0.186081 0.160048
0.004629 -0.157135 0.235829
0.00256 -0.236475 0.028113
0.029734 -0.245404 0.004738
0.002681 -0.206648 0.106202
0.037588 -0.185489 0.161598
-0.107578 -0.228227 0.049708
-0.000332 -0.174562 0.190204
-0.005105 -0.17192 0.19712
0.026345 -0.177917 0.181422
0.053781 -0.204271 0.112425
-0.054274 -0.218218 0.075911
0.013773 -0.168351 0.206465
-0.065432 -0.218391 0.07546
0.07309 -0.234718 0.032715
-0.094897 -0.232985 0.037251
0.042727 -0.241119 0.015957
0.041341 -0.200419 0.122511
0.090202 -0.215495 0.083039
-0.078533 -0.211268 0.094106
0.038178 -0.204376 0.11215
-0.068266 -0.219286 0.073117
-0.024324 -0.200007 0.123589
-0.00997 -0.176671 0.184683
0.016343 -0.172624 0.195278
0.088914 -0.220957 0.068741
-0.030491 -0.174849 0.189452
0.09933 -0.236606 0.027772
-0.096793 -0.230869 0.04279
-0.050673 -0.24642 0.002078
-0.044171 -0.216005 0.081705
0.068271 -0.241709 0.01441
0.056595 -0.195159 0.136279
-0.074124 -0.234458 0.033396
0.086839 -0.215662 0.082604
0.016519 -0.232455 0.03864
0.107173 -0.219514 0.072517
0.103126 -0.234818 0.032451
0.053212 -0.206366 0.106939
0.070798 -0.208478 0.101412
0.004365 -0.203272 0.115042
0.012598 -0.207735 0.103357
-0.032943 -0.234065 0.034425
0.014128 -0.176385 0.185433
0.002213 -0.201659 0.119263
0.02213 -0.166773 0.210597
0.054429 -0.232206 0.03929
-0.024829 -0.209031 0.099963
-0.105155 -0.221871 0.066346
-0.036481 -0.230146 0.044685
-0.074494 -0.239069 0.021323
0.115263 -0.23763 0.025091
-0.020124 -0.243702 0.009193
-0.03574 -0.179369 0.177619
-0.050615 -0.215853 0.082102
0.014505 -0.203811 0.11363
-0.088234 -0.210148 0.097039
-0.077204 -0.239194 0.020995
0.04473 -0.20206 0.118213
-0.006039 -0.165952 0.212745
0.00021 -0.227477 0.051671
0.007456 -0.161305 0.22491
0.055554 -0.21096 0.094914
0.031507 -0.187304 0.156844
0.079223 -0.206218 0.107328
-0.126962 -0.236133 0.029009
0.070655 -0.203609 0.114159
-0.109078 -0.223305 0.062594
-0.095717 -0.22157 0.067137
0.000765 -0.227927 0.050494
0.002166 -0.162005 0.223078
0.043909 -0.228632 0.048648
0.002554 -0.198974 0.126293
-0.016162 -0.164768 0.215846
-0.112495 -0.227809 0.050803
0.060665 -0.241093 0.016023
0.005156 -0.183094 0.167868
0.057583 -0.209973 0.097496
0.065863 -0.246791 0.001107
-0.016486 -0.196025 0.134013
-0.033052 -0.175268 0.188356
0.069739 -0.239568 0.020018
-0.016802 -0.171048 0.199403
-0.034229 -0.181519 0.17199
0.029646 -0.219891 0.071533
-0.044909 -0.209541 0.098629
0.099909 -0.234973 0.032047
-0.129746 -0.244852 0.006183
0.061542 -0.237804 0.024633
-0.090923 -0.226929 0.053106
0.061779 -0.216783 0.079668
-0.041323 -0.237425 0.025626
0.005276 -0.207153 0.104881
-0.109664 -0.238038 0.024022
-0.011157 -0.171139 0.199166
0.131689 -0.235175 0.031519
-0.14525 -0.245944 0.003323
0.075292 -0.246411 0.002102
-0.061261 -0.230838 0.042873
-0.048858 -0.218348 0.07557
-0.083537 -0.226767 0.053529
-0.127999 -0.240896 0.01654
-0.020453 -0.175068 0.18888
-0.093364 -0.235374 0.030998
-0.050905 -0.234578 0.033079
-0.092113 -0.227398 0.051879
0.062665 -0.24367 0.009278
-0.059382 -0.200744 0.121659
-0.055408 -0.197394 0.130429
0.011193 -0.199421 0.125122
-0.095458 -0.246995 0.000572
0.134268 -0.241777 0.014232
-0.040091 -0.209055 0.099899
-0.0039 -0.239915 0.019109
-0.005872 -0.177575 0.182317
0.069481 -0.218236 0.075865
0.061689 -0.238735 0.022197
0.033919 -0.23553 0.030589
0.056408 -0.190169 0.149345
0.030709 -0.211772 0.092788
-0.017942 -0.227439 0.051772
-0.041711 -0.216724 0.079824
-0.041543 -0.195964 0.134173
-0.079456 -0.219171 0.073418
-0.019868 -0.183779 0.166074
-0.048994 -0.200369 0.122642
0.023652 -0.234014 0.034558
0.014147 -0.165717 0.213361
0.008003 -0.214416 0.085867
-0.050875 -0.237044 0.026624
-0.012776 -0.197191 0.130961
-0.028518 -0.232774 0.037804
-0.049624 -0.215468 0.083112
-0.088052 -0.229124 0.04736
0.091277 -0.213 0.089572
-0.117066 -0.235332 0.031108
-0.012376 -0.195797 0.134609
0.107799 -0.228361 0.049356
0.065887 -0.20356 0.114287
0.056382 -0.219903 0.071499
0.075464 -0.212041 0.092082
-0.124536 -0.243275 0.010311
